# .PCD v0.7 - Point Cloud Data file format
VERSION 0.7
FIELDS x y z intensity
SIZE 4 4 4 4
TYPE F F F F
COUNT 1 1 1 1
WIDTH 1367
HEIGHT 1
VIEWPOINT 0 0 0 1 0 0 0
POINTS 1367
DATA ascii
3.5094059 0.48256063 5.7606015 10.666667
-3.959873 0.52685994 5.7713704 10.666667
-3.9441671 0.5242849 5.7711744 10.75
3.1234963 0.52863252 5.7951031 11.1545
3.4905841 0.53130877 5.7808156 10
3.501235 0.51256639 5.7911139 11
-3.9540415 0.57022142 5.757266 10.25
3.4962103 0.553523 5.7729759 11
3.504575 0.58110148 5.7633429 12
5.8381453 0.57416463 5.7750025 10
-3.9542122 0.63028997 5.7769508 11
-3.9458604 0.63717002 5.7568932 11
3.4896882 0.64681435 5.7610855 11
-3.9560623 0.66479546 5.7822618 11.5
-3.9473162 0.67581755 5.776123 12
3.49701 0.68295586 5.7629018 11
3.5084238 0.65123075 5.7863264 12
5.8492961 0.66619033 5.7980185 10.116
5.8576674 0.65786654 5.7622142 10
11.125097 0.68449283 5.7838669 9
11.163841 0.67483109 5.7983766 9
-6.8853965 0.70557702 5.7721171 10
-3.954443 0.71275604 5.7750101 11.25
-3.941577 0.70606828 5.7524047 11
3.0867701 0.7234332 5.7970262 11
3.4890685 0.73738837 5.7823029 11
3.5081887 0.70683479 5.7593641 12.5
5.8276062 0.70883662 5.7602625 10
-3.957974 0.76736724 5.773407 11.5
-3.9472647 0.76310617 5.7602158 11
3.0866258 0.78821218 5.7993841 13
3.5005908 0.78989464 5.7897835 13
-3.9576273 0.82746577 5.7724395 12.666667
-3.9426417 0.82721186 5.7573929 12.5
3.0870643 0.84903949 5.7975917 12
3.1045642 0.8329162 5.7986178 12
3.2148073 0.84385884 5.7975874 12
3.4977825 0.81890517 5.7696953 12
3.514106 0.80017066 5.7502098 11
-3.9644582 0.86882991 5.7676477 12
3.5056968 0.86110461 5.7633276 12.5
-3.959569 0.93525642 5.7953248 13
3.4985161 0.92945135 5.7798758 13
-6.8816552 0.97226804 5.7630577 11
-3.9562402 0.97479868 5.7753906 13.25
-3.9468741 0.97567636 5.7585359 14
3.4930596 0.97757953 5.782814 12.5
-3.954803 1.0296017 5.7713823 13
-3.9482267 1.0104874 5.7653284 12
3.1163535 1.041165 5.7827697 13
3.4938226 1.0192382 5.7734089 14.5
11.078776 1.0497624 5.7970796 10
-3.9521215 1.0811275 5.7902288 13
-3.9441717 1.0980952 5.7754917 15
3.098927 1.0727186 5.7917862 15
3.4859934 1.0700659 5.7764115 15
3.5013711 1.0575967 5.7641439 13
11.067283 1.0674814 5.7838082 10
-3.9635322 1.1309791 5.7928615 13
-3.947361 1.1153307 5.7745109 14.666667
3.0882087 1.1013281 5.7896147 14
3.3175797 1.1318166 5.7980247 14.5
3.4929054 1.1334187 5.7756085 13
11.049741 1.1086885 5.7772555 10
11.065456 1.1090618 5.7525506 10
-3.9614205 1.1891178 5.7723703 13
-3.9420509 1.1668984 5.7705321 14.333333
3.1000023 1.193611 5.7944951 14
3.4882326 1.165247 5.7694802 14
-6.898016 1.2240316 5.7953715 12.056
-3.9566967 1.2294621 5.7845488 13.5
-3.9391003 1.2323723 5.7583227 15
3.095644 1.2251955 5.7791696 14
3.3341117 1.2292844 5.7996879 14
3.49088 1.2335041 5.7913914 14
-6.3479667 1.2873712 5.76823 12.0635
-3.9613473 1.257811 5.796185 13
-3.9424572 1.2845143 5.781805 14.666667
3.063714 1.2635412 5.7856207 15
3.1033802 1.2957596 5.7992291 12
3.3243644 1.2594591 5.7926002 14
3.483638 1.2788844 5.7819963 14.333333
5.7960544 1.2968419 5.7833138 12.1125
-6.9123936 1.3219781 5.7512321 12
-6.8305993 1.3357126 5.7740889 12
-3.9545944 1.3453746 5.770679 14
3.0888515 1.3370278 5.7937307 14.5
3.3275871 1.3153028 5.7917423 15
3.4890289 1.3406683 5.7590494 15
5.8301229 1.3093292 5.7962441 13.1225
-6.8372126 1.3593678 5.7827253 12
-6.7326846 1.3572968 5.7963724 12
3.0928426 1.3755159 5.7849417 15
3.32584 1.3744755 5.7972813 14.5
5.2054801 1.3577003 5.7678542 14.123
5.8185816 1.36519 5.7971926 13.12
-3.9529171 1.4136391 5.7575827 14
-3.9490161 1.4320388 5.7889547 14.5
3.0818777 1.419329 5.7921643 15
3.1011267 1.4213206 5.7875371 15
3.3297493 1.4184873 5.7950716 15
3.4936044 1.40123 5.7865152 15
5.789351 1.4318113 5.7552981 13.79
5.8026099 1.4076043 5.7823815 13.117
11.078123 1.4496436 5.7953725 11
-3.9407742 1.4782233 5.7756486 14.5
3.3108711 1.455883 5.7910509 15
3.4639766 1.4814105 5.7915049 15
11.048116 1.4916356 5.7781849 11
-3.9401488 1.501617 5.7674327 15
3.2064795 1.5296673 5.7980156 14
3.3137321 1.5301032 5.7996292 15
3.4801342 1.5479705 5.7607408 15
3.5066376 1.5005544 5.7608118 14
11.064472 1.5416253 5.783226 11
-3.9512727 1.559559 5.7919364 15
-3.9433863 1.5775701 5.7533555 15
3.0793808 1.5573194 5.7921634 15
3.300725 1.5911493 5.7980494 15
3.509763 1.5606266 5.797009 15
-3.9494953 1.6407104 5.7538071 15
3.4653251 1.6094351 5.7672219 15
9.1926155 1.6288557 5.7764149 12
9.3517761 1.6476611 5.7526445 12.1235
-3.9464114 1.6840591 5.765862 15
9.366457 1.6575589 5.7969513 12.122
3.5017388 1.7445116 5.7813296 15
3.1512277 1.7682518 5.7980733 15
-6.9385819 -1.7416446 5.8367176 2
-6.928463 -1.5558892 5.8462381 2
3.5041902 -1.5701585 5.8287296 1
-6.9374013 -1.5284435 5.8386283 2
3.5337572 -1.5086192 5.845345 1
-6.939425 -1.4407431 5.8041925 2
3.5287633 -1.2664616 5.8312716 2
3.2197008 -1.1746225 5.8361249 2
-0.88150156 -1.1193405 5.8094187 1
-0.70965075 -1.114958 5.8175316 1
0.71124554 -1.1223829 5.8421941 1
5.1793165 -1.1114801 5.8187428 3
-6.6757069 -1.08286 5.8122873 4
-6.3895679 -1.0875002 5.8145061 3
-3.9581995 -1.0508432 5.8225417 0
-3.8748474 -1.0840607 5.8020105 1
-3.0225141 -1.0746968 5.8275566 0
-2.7167242 -1.0779556 5.848691 0
-2.6174796 -1.0723231 5.8041477 0
-2.3141439 -1.0870553 5.8315678 0
-2.0531626 -1.075965 5.8329191 0
-1.6729591 -1.0858114 5.8116174 0
1.5392646 -1.0812236 5.8317351 0
1.7548473 -1.0735846 5.8231325 0
2.1777012 -1.0589085 5.8422489 0
2.7447236 -1.0839798 5.8226624 0
3.0739584 -1.0753019 5.8205624 2
3.3141296 -1.0656508 5.8169403 1.6666666
3.3808331 -1.0791107 5.8089838 1
3.4558218 -1.0711069 5.8128033 3
3.5011988 -1.0772078 5.8306651 3
-3.9570816 -1.0402032 5.826097 1
3.0940626 -1.0436785 5.8230686 3.5
3.1054521 -1.0291703 5.8324833 3
3.1559691 -1.0256808 5.8328772 2.5
3.3271899 -1.0194688 5.825985 0.75
3.3670726 -1.0151428 5.8354831 1.5
3.4949169 -1.0398371 5.840754 0
3.5191524 -1.0270914 5.8211708 1.3333334
11.014797 -1.0355778 5.8023982 5
-6.6383376 -0.98520422 5.8233018 4
-3.9573715 -0.98170131 5.8186197 1.25
-3.9492691 -0.97034621 5.8280416 3
3.0799747 -0.97651482 5.82728 2.5
3.1227829 -0.9875102 5.8239675 1
3.1857548 -0.96822536 5.8106771 0
3.2458799 -0.98113686 5.82937 0
3.2920616 -0.95074606 5.83109 0
3.3226459 -0.96720088 5.8436184 1
3.3743906 -0.96914303 5.8327422 1.5
3.4004469 -0.96313745 5.8209014 2
3.4992225 -0.95202464 5.816576 0
3.5179915 -0.97456115 5.8282919 2
-3.9599402 -0.91753674 5.8210311 2.25
-3.9344187 -0.93132192 5.8176384 2
3.0905378 -0.93298841 5.8484583 0
3.1247077 -0.92341614 5.8277178 1.8
3.1993346 -0.94515991 5.8363647 1
3.2955933 -0.91650051 5.8280311 0
3.3131084 -0.93272495 5.808609 2.5
3.494899 -0.92870307 5.8218279 2
3.5215473 -0.93697 5.830256 1.3333334
11.024455 -0.92851734 5.8285332 5
-3.9646547 -0.87334704 5.8243084 3
3.0759459 -0.86420482 5.8389544 2
3.1154454 -0.87323427 5.8359861 0.625
3.153945 -0.8504343 5.8299074 3
3.2450905 -0.88732469 5.8326039 0
3.3229575 -0.8763032 5.8287439 1.75
3.4896822 -0.8783567 5.8226013 1.5
3.5207074 -0.87938637 5.8317823 1.75
-3.9614344 -0.83082551 5.8253517 2.75
3.0903664 -0.81753087 5.8256636 2.25
3.1192927 -0.83279169 5.8348699 1.8571428
3.2970958 -0.82025039 5.809751 4
3.3119972 -0.83072466 5.8301835 2
3.4703712 -0.82979077 5.8289962 2.6666667
3.5205255 -0.82891273 5.8298755 2
-6.8384528 -0.76835787 5.8032131 5
-3.9606171 -0.77354306 5.8154521 2.75
-3.9463134 -0.76235634 5.8295836 3
3.0905633 -0.772847 5.8420238 4.5
3.1178052 -0.76873267 5.8337636 2.3
3.1590288 -0.77601063 5.8395896 4
3.2207847 -0.75774229 5.8303032 2
3.2913854 -0.78446275 5.8356647 1
3.3315051 -0.77810341 5.8355141 2.6666667
3.4219558 -0.75849384 5.843235 2
3.4988215 -0.7907182 5.8362846 2
3.5143616 -0.77445698 5.8345962 3.4000001
-3.9561865 -0.73330933 5.8322506 4
3.0859268 -0.71739167 5.8420081 4.3333335
3.1107948 -0.73199129 5.8320007 1.7142857
3.1576483 -0.72739685 5.844348 1
3.3239691 -0.72073591 5.8254008 2.75
3.3648725 -0.74548852 5.8351274 4
3.4852135 -0.7325924 5.8256783 3
3.5164375 -0.72470307 5.808167 3
-6.8902917 -0.66763097 5.8254352 5
-3.9573183 -0.68475407 5.8176203 3.25
3.0895607 -0.66552061 5.8400445 3.6666667
3.1252286 -0.67457563 5.8341565 3
3.1579654 -0.68781149 5.8278623 2
3.2957945 -0.68061233 5.8319607 2
3.3121853 -0.66673023 5.8276772 3
3.4912834 -0.69196177 5.8208389 2.6666667
3.5275104 -0.68017584 5.8344193 2.8
-3.9584136 -0.61367768 5.8296523 3.75
3.094466 -0.63480723 5.8295116 4
3.1126881 -0.62647998 5.8318577 2.6666667
3.1509552 -0.6079815 5.8425999 2
3.2400539 -0.63558143 5.8355713 2
3.3107183 -0.63617873 5.8189764 4
3.4638214 -0.64925534 5.8296018 4
3.5055773 -0.61905342 5.8348737 3.3333333
-3.9593008 -0.55960464 5.8085694 3
-3.9455693 -0.57472891 5.8461304 4
3.0912383 -0.56781894 5.8333831 4.3333335
3.1263061 -0.57147628 5.8253002 4
3.1627116 -0.55199301 5.8437619 5
3.2965167 -0.58455354 5.8112831 5
3.3208375 -0.57345021 5.8347201 3.5999999
3.4784307 -0.56759936 5.8297868 4
3.5171623 -0.56831092 5.8222351 3.8333333
11.037548 -0.59832275 5.8073511 6
-3.9514403 -0.52029401 5.824101 4.5
3.093431 -0.52873033 5.8255711 4.4000001
3.1181345 -0.51504666 5.8375568 3.1666667
3.2340112 -0.51211542 5.8394189 3
3.2706642 -0.53918964 5.8186421 4
3.3222342 -0.52191502 5.8319635 3.5
3.3654461 -0.53736639 5.8304386 4.5
3.4928069 -0.51958477 5.8169422 5
3.5193586 -0.52485603 5.8371577 4.6666665
11.037231 -0.53109533 5.8192892 6
-6.9057407 -0.47082698 5.8137956 6
-3.9579315 -0.47724935 5.812984 4.6666665
-3.9482849 -0.46215913 5.8493567 4
3.0876033 -0.47828731 5.8260713 4.1999998
3.1205778 -0.48742527 5.8318825 3.875
3.1646452 -0.48410186 5.8423386 3.5
3.3141372 -0.47219834 5.8202477 4.6666665
3.4775512 -0.46301651 5.8331561 4.3333335
3.5183885 -0.46769875 5.8417501 4.5
-3.9469397 -0.41982856 5.8001599 4
3.0876763 -0.43098301 5.8318887 4.5999999
3.1139469 -0.41533276 5.8366833 4.25
3.1662245 -0.42238736 5.8249741 4
3.3133855 -0.42225856 5.829761 4.4000001
3.491344 -0.41841328 5.8278275 4.5
3.5187018 -0.42540973 5.8392382 4
5.8617039 -0.43260908 5.8119617 6
-6.8975253 -0.37883523 5.8255277 6
-3.9647777 -0.37480593 5.8226385 5.1999998
3.0930302 -0.38716605 5.8267798 4.3333335
3.1171219 -0.37268695 5.8332491 4.4545455
3.161505 -0.38772655 5.8341608 4.5
3.2540865 -0.39329913 5.8388186 4
3.3146129 -0.36095768 5.8202963 5.5
3.4794009 -0.36511707 5.8374176 5.3333335
3.5216901 -0.36995026 5.8253498 5.5
5.8797607 -0.38681489 5.8282785 6
-3.9636681 -0.31784332 5.8294592 5.5
3.0886593 -0.32446972 5.8326826 5.5
3.1139777 -0.3261334 5.8373747 5.4000001
3.1724079 -0.33940089 5.8480511 5
3.3276477 -0.32510161 5.8382759 5.1999998
3.3547096 -0.30947807 5.8468022 6
3.4971817 -0.31414896 5.8373475 5.5
3.5172453 -0.31952691 5.8341413 5
5.8774991 -0.30127412 5.8262978 6
-3.9675908 -0.28455812 5.8153334 6
3.0958586 -0.27939981 5.8349943 5.4000001
3.1188304 -0.27202252 5.8326473 5.1538463
3.1540041 -0.26368812 5.8257976 6
3.2416761 -0.27135199 5.8343306 5
3.3143101 -0.27692077 5.829299 5.5999999
3.4901791 -0.28521582 5.824594 5.6666665
3.5281761 -0.29170877 5.8378954 5.4000001
5.8941193 -0.27280101 5.8297734 6
-3.9702003 -0.22132906 5.8342066 6
3.1207538 -0.21960621 5.8219695 6
3.1570702 -0.22053427 5.8375087 6
3.3336668 -0.22619399 5.8282447 6
3.4932368 -0.20532732 5.8319926 6
3.5128202 -0.21957627 5.8446417 6
11.010998 -0.20158333 5.8474059 7
-6.896915 -0.16875032 5.8034701 7
-3.9617562 -0.181704 5.8264627 6
3.0935867 -0.16034086 5.8373528 6.25
3.1245077 -0.16974843 5.8325953 6
3.1549916 -0.15013291 5.8408589 6
3.2383907 -0.16342045 5.8385367 6
3.2777276 -0.15458316 5.8387804 6
3.3278172 -0.17430013 5.8350272 6
3.4167244 -0.16195779 5.8388119 6
3.497798 -0.17655592 5.8384509 6
3.5274651 -0.1710383 5.8330073 6
-3.9627485 -0.1114072 5.8169603 7
3.0878952 -0.10773477 5.8364654 7
3.1195836 -0.13154244 5.837461 6.5
3.1845262 -0.10624225 5.8388715 7
3.3027084 -0.11698098 5.8312087 7
3.3569951 -0.10750945 5.8457184 7
3.4539466 -0.1183884 5.836935 7
3.5297825 -0.11923484 5.8481684 7
5.9276218 -0.11454142 5.8153253 7
5.9500594 -0.11164295 5.8030739 7
11.075949 -0.13852644 5.8261619 7
-6.8905826 -0.09035562 5.8166709 7
-3.9666843 -0.059369225 5.8235841 7
3.0962679 -0.076270029 5.8255806 7
3.1170321 -0.069150686 5.8290215 7
3.1502838 -0.070195094 5.8278193 7
3.3159359 -0.07663691 5.823874 7
3.3627896 -0.092614666 5.8444552 7
3.4846351 -0.083391294 5.8275232 7
3.5221317 -0.078443311 5.8326111 7
5.8473139 -0.059534598 5.8216634 7
5.8987288 -0.060171634 5.8354044 7
-3.9679637 -0.042900793 5.8208919 7
3.0924976 -0.02855286 5.8236351 7
3.1205013 -0.030544808 5.8352928 7
3.1615732 -0.033316202 5.8410592 7
3.2537262 -0.032616451 5.8369679 7
3.3198121 -0.029523909 5.8330874 7
3.4936016 -0.033538844 5.8317676 7
3.5263665 -0.032026786 5.8333654 7
3.5504611 -0.046585467 5.8198819 7
5.9091539 -0.047367033 5.8140135 7
-3.9597156 0.087940909 5.8218741 8
3.0926142 0.086119294 5.8352928 8
3.1138585 0.078371003 5.8289695 8
3.1665716 0.084025152 5.8234653 8
3.2379401 0.086684495 5.8360758 8
3.3078146 0.098550305 5.8349495 8
3.4912515 0.090375729 5.8188367 8
3.5214062 0.085430793 5.8378038 8
-6.8811054 0.13212222 5.8107872 8
-3.9637969 0.11741056 5.8387451 8
3.0919871 0.12688743 5.8257189 8.0021496
3.1146138 0.11587878 5.8265729 8.0120001
3.1565869 0.12390202 5.8334579 8
3.289263 0.10173681 5.8322291 8
3.3183694 0.12567338 5.8284307 8
3.3596196 0.12115633 5.8436069 8
3.4836533 0.11872132 5.8312168 8
3.5145016 0.12679739 5.8340979 8
5.8337893 0.1485303 5.8183722 8.1160002
5.8713412 0.14762798 5.8032184 8
-6.8771896 0.18935493 5.8190365 8
3.0841072 0.19818987 5.831048 9
3.1308141 0.18594676 5.8171463 9
3.1656299 0.18000728 5.8066564 9
3.2313247 0.18918823 5.8475456 9
5.8786445 0.17369175 5.8360047 8
-3.9648087 0.23124322 5.8412375 9
3.0964153 0.24025603 5.8220196 9
3.1225038 0.218775 5.8305025 9
3.1600661 0.21643287 5.8365312 9
3.2399349 0.20598963 5.8363152 9
3.3147237 0.23152335 5.8357778 9
3.4953916 0.21812429 5.8192177 9
3.5134621 0.23366535 5.8401942 9
3.5516479 0.20630944 5.823596 9
11.108402 0.21189213 5.8347054 8
-3.9612362 0.28006116 5.8188343 9
3.0950754 0.2933968 5.8300033 9.5714283
3.1096075 0.28028762 5.8319192 9.359333
3.168088 0.28471041 5.8421688 9
3.2857702 0.28966302 5.8457975 9
3.317811 0.2546775 5.8290682 9
3.5164113 0.27681297 5.838304 9
11.098936 0.2569311 5.8043251 8
11.128222 0.27088332 5.8316698 8
-3.9665155 0.32831061 5.8271685 9
3.0950749 0.31486985 5.8260894 9.333333
3.1176636 0.32672632 5.8303633 9.3999996
3.1618803 0.30801776 5.8343687 9
3.2101581 0.31370467 5.8347092 10
3.3191926 0.31958866 5.826221 9.1428576
3.4838715 0.32646415 5.8181896 9.25
3.5178647 0.32843438 5.8335705 9.333333
-3.9626873 0.3731668 5.8161583 9.666667
3.0968266 0.37372088 5.8216043 9.0107498
3.1183548 0.37078509 5.8190551 9.666667
3.2857163 0.35057616 5.8265152 9
3.3213012 0.37797928 5.8285041 10
3.4753981 0.37179983 5.8389482 9.5
3.5163295 0.37334538 5.8415556 9.75
-6.8909883 0.4335933 5.8137569 9
-3.9626229 0.41764754 5.8430066 10
3.0895412 0.42393178 5.8306947 10.714286
3.1077175 0.41021189 5.8303809 10.7156
3.1708775 0.4373478 5.8438578 10
3.2217786 0.44365063 5.8272495 11
3.2912269 0.43116096 5.8465185 11
3.3271792 0.44198513 5.8432937 10
3.4930708 0.44086453 5.8175979 10
3.5213954 0.41171411 5.8277273 10
5.868938 0.42043853 5.82195 9.0232
-6.8900681 0.46918166 5.8209419 9
-3.96736 0.46589673 5.8384066 10
3.0932255 0.47306463 5.8239627 10.428572
3.1148138 0.46946016 5.8291397 10.5
3.165184 0.47387254 5.8305545 10
3.3233993 0.48569402 5.8211236 10.333333
3.4940817 0.48211789 5.8273592 10.5
3.5144992 0.47076607 5.8315539 10.428572
-3.9604816 0.50647467 5.8157673 10.5
3.0895963 0.5264985 5.82371 11.2
3.1162238 0.52161694 5.8281088 11.125
3.1584003 0.51078677 5.8208699 10
3.2635729 0.54768848 5.8405614 12
3.3205853 0.52491122 5.8166137 10.5
3.4725566 0.51394856 5.8232126 10.5
3.5215988 0.52209526 5.8282375 10.333333
-3.9571567 0.5786196 5.8287139 10.6
3.0948882 0.5702998 5.8330169 11.1
3.1206958 0.58238667 5.8212123 11.333333
3.1640704 0.57568145 5.8401408 10.5
3.247654 0.56834018 5.8264375 12
3.2963169 0.58557761 5.8248243 10
3.3307061 0.57474315 5.8350563 10.5
3.3667037 0.55871385 5.8371892 10
3.4902885 0.58205408 5.8207998 10.6
3.5165083 0.57722652 5.8278399 11
-3.9563122 0.64085013 5.8390169 11
-3.9428689 0.64872795 5.8204222 12
3.0901499 0.62701231 5.833847 11.666667
3.1132507 0.6321224 5.8267403 11.669056
3.2206144 0.6346752 5.8250961 12
3.3118713 0.62244284 5.8210125 11.6
3.3654923 0.60886896 5.8428268 11
3.483753 0.61509109 5.8364258 11.333333
3.5317113 0.62382877 5.8364639 12
5.8535194 0.6271084 5.8074446 10
11.147611 0.62938577 5.8283648 9
3.092891 0.67536849 5.8236527 11.5
3.114948 0.66792899 5.8193822 11.777778
3.2312472 0.68798739 5.8205781 13
3.2684863 0.66204727 5.8221693 12
3.3159773 0.67811912 5.8084641 11.333333
3.3718612 0.66413397 5.8097763 11
3.4721215 0.67861038 5.817636 11.333333
3.5148885 0.67547423 5.8251038 11.333333
5.8274937 0.65823966 5.8123817 10
5.8547096 0.6730575 5.8283405 10
5.9023128 0.65978956 5.848114 10
11.119699 0.65473145 5.8072968 9
-6.8871789 0.73031008 5.8218813 10
-3.9546092 0.74574649 5.8361187 12
3.0870774 0.72917569 5.8230715 12.736571
3.1139827 0.72652358 5.8287563 12.25
3.1638346 0.72388279 5.827631 12.5
3.3204536 0.73001122 5.8169975 11.75
3.4927559 0.72668296 5.8250337 12.666667
3.5164938 0.71964455 5.8238869 12.333333
5.8312912 0.70755655 5.8183126 10
-6.8818774 0.77363348 5.8024769 10
-3.9609625 0.78353286 5.817008 11.75
3.0905519 0.7651509 5.8276901 13.2
3.1150508 0.78054237 5.8236156 12.142858
3.1730385 0.79270899 5.8222632 12.5
3.2292407 0.78377986 5.8322644 14
3.2978563 0.75660264 5.8201299 13
3.3273356 0.774813 5.82687 12
3.3533623 0.79769844 5.8319783 11
3.4388058 0.77781266 5.8421469 12
3.4964602 0.77420026 5.8289475 11.666667
3.5203872 0.77365792 5.8305259 12
5.8086996 0.76766866 5.8068113 11
-3.9583344 0.81877244 5.833714 12.2
3.0862267 0.82736123 5.8238587 13
3.1127887 0.82805282 5.8233032 12.2
3.2078111 0.83908772 5.817421 14
3.2996554 0.82063341 5.8118863 11
3.3191202 0.8237561 5.8101292 12.75
3.4451075 0.83163643 5.8313503 11
3.4849114 0.82727784 5.8302317 12.6
3.5059509 0.818299 5.8299193 12
-3.9523797 0.8789463 5.8478689 13
-3.9422569 0.85581708 5.8167415 12
3.0844252 0.87858498 5.8253274 13.846154
3.1091027 0.86429667 5.8405852 12.5
3.1549704 0.89837933 5.8308411 13
3.3174 0.87340677 5.8142495 13
3.4803452 0.87078559 5.813653 12
3.5163257 0.87359017 5.8240089 12.833333
-3.9567304 0.91436374 5.8184891 12.5
-3.9394195 0.93422103 5.8202229 14
3.08513 0.92076427 5.8255696 13.222222
3.1357875 0.93434268 5.8152056 13.2
3.2300591 0.92269063 5.8250456 15
3.3123176 0.9213841 5.8190098 13
3.3661737 0.93094498 5.841958 13
3.4885397 0.9411571 5.8322201 13.5
3.5127759 0.91622919 5.8168569 13
-6.8841591 0.99828947 5.8289881 11
-3.9519103 0.98521698 5.8326631 13
3.0893862 0.97660166 5.82865 13.262875
3.1192446 0.9879185 5.8270493 13
3.3157268 0.97161055 5.8074903 13.5
3.3589234 0.99787343 5.8348317 12
3.4746172 0.97645885 5.8088813 14.666667
3.5095067 0.97198915 5.8199759 13.4
-6.885726 1.038771 5.8014545 11
-3.958606 1.0275713 5.8267179 13
3.0875294 1.0249588 5.8238149 13.415601
3.1288629 1.0281166 5.8259993 14
3.167376 1.012307 5.8344636 12
3.2780685 1.029681 5.8126431 14
3.3400917 1.0270973 5.8230662 13
3.369797 1.0459003 5.8114519 15
3.4853995 1.0333517 5.8058281 13
3.5095861 1.0283172 5.8263698 13.285714
11.05037 1.0404756 5.8345613 10
-6.8900976 1.0666254 5.8204312 11
-3.9577568 1.0744573 5.8136687 13
-3.9393864 1.0810107 5.8089685 15
3.0848284 1.074541 5.8207498 13.4
3.123075 1.0662532 5.8207083 14.5
3.1996403 1.0621082 5.817605 14
3.3099539 1.0690331 5.8152609 13.5
3.3833103 1.0501434 5.8146195 13
3.4690604 1.0734378 5.8169961 13.5
3.51092 1.0777335 5.8263731 13
11.08691 1.0744381 5.8152261 10
-3.9440198 1.1051688 5.8024635 14
3.0865135 1.132025 5.8213749 14.25
3.1267705 1.1225215 5.8176584 13.788625
3.3097043 1.1179127 5.8093457 13
3.4556642 1.107106 5.8276772 14.5
3.515022 1.1269459 5.8229613 14
-3.9544795 1.1895639 5.8410468 14
-3.943393 1.1908064 5.8363943 14.5
3.0870755 1.182145 5.8204741 14.359333
3.125488 1.166383 5.8397188 14
3.3236954 1.1824377 5.8081946 14
3.4759445 1.1832552 5.8307233 13
3.5276198 1.1754575 5.8108935 14.5
-6.8814287 1.2462741 5.8134975 12
-3.9656937 1.2389169 5.8487873 14
-3.9476526 1.2454062 5.8253908 15
3.0836132 1.2263865 5.8359756 13.833333
3.134953 1.2277526 5.8317432 14.5
3.1608257 1.2221706 5.8180561 13.5
3.2924547 1.2282639 5.8255873 14
3.3819723 1.2235539 5.8338695 13
3.489825 1.2314498 5.8166752 14
3.5163994 1.2324252 5.8283453 14.5
-6.8825812 1.2736243 5.8216105 12
3.0840468 1.2763383 5.8241239 13.4
3.1284406 1.2795734 5.8036728 15
3.3481469 1.2593049 5.8327451 13
3.3952582 1.2650949 5.824544 15
3.5067608 1.273566 5.8196383 13.75
5.8270974 1.2817501 5.8251662 12.113
-6.7562604 1.330056 5.8095884 12
-6.7182322 1.3359923 5.8296204 12.015875
-6.430501 1.3224297 5.8197632 12.065
-3.9511213 1.3064365 5.8210173 13
3.0878825 1.3170831 5.817461 14
3.1373477 1.3236265 5.825058 14.5
3.3148813 1.3126326 5.8124094 13.5
3.4826767 1.3294979 5.8194313 13.666667
-6.8688674 1.3576611 5.80056 12
-6.8357925 1.3545543 5.8130398 12
-3.9513295 1.3736928 5.8330593 15
-3.942693 1.3644483 5.8320656 15
3.0932028 1.3611978 5.8367352 15
3.1315448 1.3719918 5.8156214 14.5
3.4644337 1.3979955 5.8069816 14.5
3.5033336 1.3518044 5.8219528 14
5.1525035 1.3530067 5.8311992 14.1225
-3.9637983 1.4193474 5.8394456 14.666667
-3.9465029 1.4412092 5.8491063 14
3.0754652 1.4268339 5.8280916 14
3.1121354 1.4249358 5.8333416 14.5
3.3580437 1.4448881 5.8212829 14
3.4876032 1.4249978 5.8118968 14.5
5.7853007 1.4370248 5.8281221 14.1265
11.055013 1.4298068 5.8234172 11.1295
3.0778942 1.4776644 5.8232298 14.4
3.1013463 1.4611722 5.8124437 14
3.154309 1.4704627 5.8277588 14
3.3517549 1.4928739 5.8211117 14
3.492825 1.4747145 5.8074598 14.5
3.5110044 1.4605013 5.8204842 14.5
11.06455 1.469003 5.8281927 11
3.0856831 1.5202836 5.8206978 13.333333
3.1456988 1.5053605 5.8039994 15
3.3058288 1.5436143 5.8114223 14
3.513201 1.5182825 5.8484869 14
3.0883465 1.573234 5.8296051 14
3.1136127 1.58429 5.8103943 14
3.4468417 1.5621727 5.8226027 14
3.5093203 1.5679089 5.8142638 14
3.0887909 1.6402313 5.8212209 14.5
3.4674749 1.6178646 5.8039455 15
9.3721838 1.6481442 5.8022175 12.125
-3.9482272 1.6606795 5.8279176 15
3.0774589 1.6763587 5.8273621 14.5
3.1005352 1.6954416 5.8144417 15
3.3538756 1.6735687 5.8194551 15
3.4931016 1.6930432 5.8123398 15
3.5012431 1.6969656 5.824358 15
7.9672756 1.6672888 5.8141584 13.1265
8.3260689 1.676288 5.8452125 13.13
8.4046364 1.6736306 5.8465371 13.1325
9.6999416 1.6851217 5.8426747 12.123
9.9538469 1.6779796 5.8271255 12.128
10.03336 1.6695272 5.8251514 12.129
10.372009 1.6910228 5.8036218 12.131
-3.953382 1.7432835 5.8316989 15
3.070765 1.7215097 5.8180757 14.5
3.1520691 1.7058179 5.8289165 15
3.349128 1.7316371 5.8220458 15
10.817095 1.7038261 5.8105111 12.134
3.0735555 1.7713368 5.8301411 14.5
3.1154838 1.7736353 5.8399286 15
3.2773497 1.787922 5.8120246 15
3.5019517 1.7563562 5.8340859 15
-3.9476686 1.8101952 5.8487549 15
3.0733254 1.8392576 5.8136706 14
3.3845019 1.8026748 5.8142076 15
3.4540176 1.8125962 5.8162684 15
3.5188203 1.825192 5.8322992 15
3.0826554 1.8988909 5.8183379 14
3.0974026 1.9147666 5.8257327 15
3.073241 1.9742726 5.8194108 15
3.0554261 2.0064347 5.8185725 15
3.0805581 2.0740323 5.8371944 15
3.0856717 2.1435442 5.8050132 15
3.0752516 2.2063282 5.8266129 15
11.234778 -1.3526073 5.8863182 4
3.1090348 -1.3351076 5.8542848 3
3.4661882 -1.3234513 5.8600788 2
3.5177643 -1.3277763 5.8552074 2
3.1158187 -1.2854261 5.8945498 3
-3.9595466 -1.2048167 5.8798976 2
3.0632472 -1.243924 5.8688159 3
3.4945889 -1.2072678 5.8644156 2
3.0372636 -1.1740471 5.8943267 3
-0.4141598 -1.1181704 5.8649969 1
-0.24468589 -1.1165041 5.8682871 1
-0.14332569 -1.1227636 5.8994541 1
0.54256994 -1.122588 5.8667421 1
3.0309949 -1.1182513 5.8787384 2
3.1598155 -1.1183069 5.8584471 2
-3.9622188 -1.082392 5.8849831 1.75
-3.8834429 -1.0782657 5.872499 0.5
-3.7801623 -1.0981584 5.8587279 2
-3.6287885 -1.077624 5.869957 1
-3.3917139 -1.0617095 5.8510847 0
-3.1994116 -1.0767378 5.8603659 1
-3.1398523 -1.0541883 5.8605623 0
-2.6450891 -1.0697299 5.8577285 0.5
-1.4689847 -1.0848897 5.8923259 0
1.3997707 -1.0783236 5.8756142 0
1.8833523 -1.071709 5.8962765 0
2.3142908 -1.0964413 5.8676262 0
2.7373056 -1.0681907 5.8829842 0
3.0262403 -1.0779951 5.8816624 0
3.0982404 -1.0539782 5.860261 1.5
3.1228232 -1.051344 5.8570347 3
-3.9627376 -1.0279347 5.874301 1.25
-3.9434738 -1.0105336 5.8527174 2
3.0857584 -1.0286478 5.8692908 2.25
3.1246526 -1.0312752 5.8703651 1
3.4742424 -1.0455413 5.856596 2
3.5122914 -1.0255687 5.8544941 0
10.996558 -1.0371404 5.8834162 5
11.001083 -1.0279436 5.8527598 5
-3.9563901 -0.99264222 5.8778863 0.5
3.0868011 -0.97758365 5.8807974 1.75
3.1188421 -0.97388202 5.8696408 2
3.4869213 -0.99788028 5.8602018 1
3.5240309 -0.96517277 5.8589325 0.33333334
6.0486445 -0.97956026 5.8974905 3
-3.9570611 -0.93457508 5.8894997 1.6666666
-3.9479115 -0.92301691 5.8713727 2
3.0915265 -0.93022996 5.8651767 2
3.1070132 -0.90915209 5.8688831 0.5
3.3328159 -0.92171437 5.8520508 1
11.032127 -0.93039799 5.8847256 5
-3.9594111 -0.87784624 5.8769851 2.5999999
3.0966964 -0.87133276 5.8760862 1.6
3.1198618 -0.87211895 5.8682694 2
3.4998202 -0.8586899 5.8515019 1
-3.9681611 -0.8321439 5.8803377 2.625
3.0925355 -0.83571321 5.8598881 1.5
3.1127231 -0.82759154 5.870008 1.2857143
3.3200352 -0.80599785 5.8506069 2
3.4835291 -0.82455242 5.8690753 1.5
3.5279756 -0.83178091 5.8600054 1.5
-6.8929601 -0.79364014 5.8967085 5
-6.8437676 -0.78989655 5.8940043 5
-3.9650097 -0.77214694 5.8827596 2.8
3.0860434 -0.7745477 5.8529267 5
3.1128395 -0.77095735 5.8758445 2.8888888
3.1639428 -0.78381687 5.8514404 2
3.2676976 -0.7661491 5.8547931 1
3.3120587 -0.76430339 5.8550019 2
3.5163229 -0.78255105 5.8616543 2.6666667
-6.8906908 -0.71587658 5.8959332 5
-3.9682829 -0.72393584 5.8696961 2.6666667
3.0886054 -0.72161388 5.868413 3.4000001
3.1151643 -0.72138518 5.8621144 1.7777778
3.1547468 -0.73430502 5.8527455 4
3.5058169 -0.71834946 5.8533916 2
-3.9683721 -0.68795055 5.8644986 3.3333333
3.0838273 -0.65639007 5.8717728 5
3.1089048 -0.67710209 5.8759975 2.5
3.4887908 -0.67669284 5.8654957 2.5
3.5173523 -0.68037713 5.8628125 2.5
-6.8997602 -0.63279998 5.8583584 5
-3.9653955 -0.62124544 5.8892174 4.25
3.0882747 -0.60827804 5.8677726 2
3.1115999 -0.6203928 5.871037 3.1818182
3.1590114 -0.62779242 5.8520384 3
3.270637 -0.643363 5.8543892 2
3.3268781 -0.63089132 5.8566217 3
3.4915044 -0.6355347 5.8718176 3
3.5188787 -0.6044547 5.8532057 3
11.034759 -0.61567724 5.8556232 6
-3.9648588 -0.56797987 5.8839965 3.6666667
-3.9461479 -0.57291162 5.8867302 4
3.0954139 -0.56915474 5.8716393 3.3333333
3.1141784 -0.5739401 5.8607359 3.8571429
3.4877667 -0.57577503 5.8526974 3
3.5182304 -0.56958675 5.8553567 3.6666667
-3.9550545 -0.52836734 5.8601995 4.3333335
3.0954623 -0.52539724 5.8768601 4.4000001
3.1225028 -0.524674 5.862587 3.75
3.1981215 -0.50996476 5.8508887 3
3.4646642 -0.50212342 5.8604069 4
3.5146189 -0.50681829 5.8617363 4
11.03651 -0.54325467 5.8569093 6
11.056941 -0.52705795 5.896389 6
-6.9058557 -0.48208037 5.8749905 6
-6.8964477 -0.47552451 5.8960133 6
-3.9584572 -0.47029218 5.885479 4.6666665
3.09148 -0.47872472 5.8735142 4
3.1094074 -0.4802976 5.8822246 4.5
3.3204947 -0.47527221 5.8512535 4
3.4143457 -0.49749205 5.8602467 4
3.5102413 -0.48102731 5.8665943 4
-6.8976407 -0.41880378 5.8962388 6
-3.9642532 -0.43022391 5.8778882 4.875
3.1093156 -0.4322221 5.8758817 4.8571429
3.2730246 -0.40147147 5.8541756 4
3.4996915 -0.42990589 5.8694139 4
3.507318 -0.43196213 5.8556461 4
-6.9139228 -0.36100328 5.8589993 6
-3.9711843 -0.3734439 5.8751893 5.25
-3.9394853 -0.39327052 5.8988619 5
3.0960026 -0.3787832 5.8705864 4
3.1174405 -0.38014221 5.8649468 5
5.8692288 -0.37645686 5.8724051 6
-3.9671507 -0.32733914 5.8883238 5
3.1158321 -0.32348862 5.8666992 5.6666665
3.1625795 -0.31880745 5.8578401 5.6666665
3.316781 -0.32216823 5.8589077 5
3.4695115 -0.34148973 5.8590641 5
3.5241432 -0.32562861 5.8624659 5.4000001
-3.9705589 -0.26470518 5.8849273 5.8000002
-3.9498715 -0.25287518 5.8898702 6
3.0845594 -0.27217758 5.8734369 5.5
3.1148174 -0.27602401 5.8716092 5.4166665
3.265105 -0.28129065 5.8515844 5
3.5363431 -0.28631648 5.8510332 5.5
5.8459492 -0.28168163 5.8878484 6
5.875762 -0.28296834 5.8751683 6
-3.9734943 -0.22231714 5.8669009 6
-3.9429953 -0.21838024 5.8679571 6
3.091552 -0.21968204 5.8811388 6
3.1198683 -0.21424076 5.8809752 6
11.016248 -0.20223796 5.8715296 7
-6.9010968 -0.1720365 5.8681173 7
-3.9808865 -0.18123001 5.8843541 6
3.0961266 -0.16785274 5.871645 6.5
3.1214418 -0.16730601 5.8689156 6.1111112
3.2731848 -0.16867627 5.8573389 6
3.3340411 -0.17026716 5.8548002 6
3.4827602 -0.18214117 5.8746519 6
3.535466 -0.17380376 5.860075 6
-6.8913269 -0.12211084 5.8869243 7
-3.966552 -0.13420223 5.8866692 6.6666665
3.1154478 -0.12479177 5.8732419 6.7272725
3.5207603 -0.10876964 5.8527684 7
5.8774805 -0.1108169 5.8971915 7
11.073906 -0.1303039 5.8663321 7
11.103062 -0.12398895 5.8868923 7
-6.897665 -0.088934913 5.8708448 7
-3.964982 -0.063555107 5.8748112 7
3.0967968 -0.091222316 5.8579335 7
3.1158817 -0.06607379 5.8749008 7
3.1535101 -0.091629587 5.8635454 7
5.8737111 -0.072396949 5.8625512 7
5.9257436 -0.062396459 5.871366 7
-3.9674275 -0.030784246 5.8660116 7
-3.9389381 -0.041313536 5.8668656 7
3.1163418 -0.032807518 5.8734279 7
3.2659962 -0.044916548 5.851109 7
3.3331928 -0.018597087 5.8568687 7
3.4165459 -0.048019633 5.8633003 7
3.4774861 -0.021759888 5.8591104 7
3.5259807 -0.028681504 5.856596 7
-3.9595685 0.090359509 5.8804379 8
3.0891926 0.085416801 5.8718171 8
3.1073885 0.082230017 5.8689671 8
3.2468131 0.072680034 5.851058 8
3.4595809 0.075617276 5.8633103 8
3.5251088 0.076276377 5.8510566 8
-6.8880148 0.13709143 5.8785014 8
-3.9628887 0.12724797 5.8756456 8
-3.9454784 0.12996557 5.8829412 8
3.0963244 0.10920331 5.8836403 8
3.1114607 0.11474219 5.8735633 8
3.1512656 0.12172135 5.8602104 8
3.2611935 0.13479222 5.8558636 8
3.4931526 0.12010922 5.8562584 8
3.5177965 0.12281367 5.8547215 8
5.8450651 0.14588375 5.8641 8
5.8699656 0.14291681 5.8545418 8
3.0977175 0.18797873 5.8667412 9
3.1136134 0.18389043 5.8665638 9
-3.9688272 0.22547826 5.8963537 9
3.0996974 0.21413901 5.8536558 9
3.1128292 0.22089458 5.8651958 9
3.4595177 0.20029734 5.8629589 9
3.5387115 0.22308737 5.855062 9
-3.9701893 0.27242234 5.8698421 9
3.0959141 0.29790771 5.8623433 10
3.1101379 0.26854369 5.8857899 9
3.3309665 0.28674808 5.8503923 9
3.4748421 0.29809308 5.8587914 9
3.5282598 0.29132724 5.8662901 9
11.117207 0.28108895 5.8591776 8
-3.9627056 0.32604143 5.877749 9
-3.9423633 0.31258628 5.8659773 9
3.0881691 0.33305717 5.8524122 10
3.1221964 0.32841522 5.8692555 9.333333
3.162364 0.33741969 5.8593707 9
3.3614736 0.34304005 5.8512363 9
3.4090786 0.32118139 5.8585491 10
3.521008 0.33115244 5.855494 9
-3.9672489 0.36216331 5.8819861 9.5
3.110558 0.36893544 5.8769956 9
5.8705354 0.37209496 5.8655992 9
-6.8999162 0.44711795 5.884696 9
-3.9636207 0.4181602 5.8789444 10
3.0915089 0.4219172 5.8815241 11
3.1092758 0.42652807 5.879549 10.125
3.5202916 0.44564411 5.8593535 10
5.8268957 0.4054499 5.8627915 9
5.8685355 0.42575741 5.8689814 9
-6.8950748 0.47273499 5.887948 9
-3.9632957 0.47741964 5.8867497 10
-3.9359612 0.48907465 5.8777122 10
3.0987513 0.45036951 5.8563986 10
3.11954 0.48338583 5.8659558 10.5
3.4524603 0.4570865 5.8552241 10
-3.9623353 0.53005141 5.8721366 10.333333
-3.9461851 0.50195634 5.8928957 10
3.0846162 0.51855409 5.8645859 11
3.1097388 0.53407216 5.8883266 11
-3.9578841 0.55949122 5.8729272 10.333333
3.08917 0.56603789 5.870851 11
3.1114371 0.57135993 5.8771482 10.571428
3.1572156 0.55005616 5.8606615 10
3.5282824 0.58977598 5.8641028 10
5.8569369 0.573071 5.8585539 10
-3.9572151 0.62976718 5.8800697 10.8
-3.9486742 0.64955586 5.8960018 12
3.0966301 0.62692988 5.8604393 11.6
3.1106617 0.61554921 5.8804479 11.4
5.8543444 0.63965732 5.8962383 10
11.098849 0.63595158 5.8789473 9
-3.9604809 0.67321545 5.8695722 11.428572
-3.9426939 0.68172306 5.8665028 11
3.0936918 0.67004764 5.8785849 11
3.1056089 0.67124689 5.8822598 11.5
5.8297548 0.6600703 5.8776956 10
11.137064 0.6854254 5.8740697 9
11.182482 0.65077472 5.8568935 9
11.207053 0.67976195 5.8905725 9
-6.8913369 0.71248239 5.8933516 10
-3.9572134 0.7297954 5.8725691 11.25
3.0958209 0.7139225 5.8804102 11
3.1179121 0.7165795 5.8661461 12.333333
-14.299996 0.75517774 5.889504 9
-6.8824735 0.76105058 5.8702068 10
-3.9624755 0.78351635 5.8842545 11.666667
3.0850008 0.7750051 5.8829346 14
3.1171029 0.76420736 5.8831868 11.75
5.8214083 0.77110815 5.8521566 11
-3.9613917 0.81914943 5.8761506 12.166667
3.0877702 0.84124553 5.8697619 12
3.1103802 0.82257032 5.8606911 11.571428
-3.9635289 0.86874318 5.8839478 12.166667
-3.9451842 0.88569981 5.877821 12
3.0850496 0.87297654 5.8698421 14
3.1030602 0.87676877 5.8667698 13.25
3.1597159 0.86423486 5.8719893 13
-3.9569514 0.92716914 5.8790631 12.666667
3.0864434 0.9140597 5.8700018 12.857142
3.101788 0.94789624 5.869976 13
-6.8822231 0.98150861 5.8971257 11
-3.9553287 0.97013026 5.8754439 12.8
-3.9453011 0.9624387 5.8639455 14
3.0888669 0.95762622 5.8978615 11
3.1038909 0.9829247 5.8664312 12.5
3.1541717 0.98407823 5.8650141 12
-6.8854465 1.0418894 5.887701 11
-3.9562011 1.0085819 5.8773737 13.5
-3.9413705 1.0163913 5.8644624 13.5
3.0822885 1.022048 5.8762107 14.2
3.1162319 1.0287924 5.85851 13
3.527473 1.0152967 5.8507209 12
-6.8833714 1.0669379 5.8762045 11
-3.9591882 1.0841591 5.8673749 13
-3.9430614 1.077288 5.8847742 14
3.0868411 1.0617325 5.8780355 13.5
3.1191664 1.0664767 5.8753338 12
11.074765 1.0857482 5.8805618 10
-6.8767247 1.1115704 5.8874793 11
-3.9543998 1.1251146 5.8751988 12.666667
-3.9404998 1.106823 5.8700495 15
3.093956 1.1260039 5.8611622 13
-3.9547124 1.1715878 5.8771758 13.8
-3.9442616 1.1566045 5.8811865 14.5
3.0494461 1.1704279 5.8500872 12
3.0809639 1.1700777 5.8733649 13
3.1065536 1.1777936 5.8599505 14
-3.9583514 1.2274032 5.8826632 14
-3.9382911 1.213011 5.8740611 14
3.0869792 1.2228379 5.8855972 13.25
3.1250942 1.222806 5.8717279 13
3.5261312 1.2424426 5.8515463 13
-6.8836508 1.2765956 5.8906908 12
-3.959209 1.2694327 5.8773518 13.5
-3.942678 1.2809565 5.854732 14
3.0883965 1.2944827 5.8804941 15
3.1128349 1.28824 5.8658981 12.666667
-6.7400513 1.3342485 5.8722963 12
-3.9540009 1.3225737 5.8740191 14
-3.9461331 1.334819 5.8747125 14.5
3.1099594 1.3275638 5.8903112 13
5.273128 1.3487331 5.899981 14.124
5.8282623 1.3397845 5.8797598 13.121
-6.7088213 1.3596212 5.860415 12.0645
-3.9567795 1.3692884 5.8727188 14.5
3.0990138 1.3585771 5.8570814 15
3.1026111 1.3853984 5.852231 13
5.7951903 1.396132 5.8637762 13.1185
-3.9394274 1.4054133 5.852354 15
3.0372188 1.4224083 5.8502069 13
3.0901165 1.420627 5.8634257 14
3.1520028 1.4263673 5.859036 14
5.7832098 1.409372 5.8579345 14.128
5.802515 1.412291 5.8708353 13.1175
11.042206 1.4326837 5.8997912 11.13
-3.9544289 1.4915085 5.8722153 15
-3.9449816 1.4814837 5.8642349 14.5
3.0907645 1.4821072 5.8888636 13.5
5.776967 1.4558016 5.8642197 14.125
11.057657 1.4878955 5.8812027 11
-3.9545608 1.5302111 5.8651814 15
-3.9462254 1.5364569 5.8618264 15
3.0869129 1.5329275 5.8923588 14
3.1213045 1.5324309 5.8576026 14
-3.9504983 1.5639865 5.8771467 14
-3.9494219 1.5773231 5.8619761 15
3.0884013 1.5772192 5.8733039 13.5
-3.9490836 1.6142559 5.8645759 15
3.0915461 1.6433191 5.8724136 14.5
8.0047607 1.6437814 5.859993 13.1285
9.0034084 1.638849 5.8760338 12.1205
9.897151 1.6494464 5.8971124 12.1295
3.0723321 1.6953753 5.8549557 14
3.1399965 1.6505678 5.855092 15
7.7607508 1.671312 5.8646021 13.125
8.0332632 1.6579671 5.8775873 13.1275
-3.9434075 1.7138 5.8681684 15
3.0703225 1.7120633 5.8708758 14.5
3.0897284 1.7556566 5.8824992 15
-3.9410121 1.8101888 5.8669071 15.072
3.0869846 1.8218681 5.8857889 14.5
3.0813537 1.8895153 5.8912492 14
3.0908394 1.9064391 5.8665805 15
3.0674269 1.9664882 5.8593464 15
3.069988 2.0628912 5.8955078 15
3.080106 2.1316142 5.8768525 15
3.0788879 2.196914 5.8958559 15
3.1147981 -1.3711708 5.9006243 3
3.1392143 -1.3317102 5.9254217 3
3.0827003 -1.2782581 5.9192352 3
3.0774837 -1.2395574 5.9246335 3
0.41344979 -1.1570657 5.9380178 2
-3.9512892 -1.1248266 5.9007902 3
-3.8536828 -1.1020685 5.9052277 0
0.11415266 -1.1243104 5.905683 1
0.28640777 -1.1258142 5.9043183 1
5.0078292 -1.1030822 5.9258757 3
-3.8412075 -1.0908555 5.9336014 1
-3.6123121 -1.0874214 5.9454107 0
-3.5088966 -1.0684447 5.9001765 0
-3.4060366 -1.0789938 5.9052105 0
-3.318846 -1.0834953 5.9003725 1
-2.9155586 -1.0683739 5.9036694 0
-2.8244009 -1.0748043 5.9422922 0
-2.2349887 -1.0839919 5.9189672 0
-2.1182685 -1.0850929 5.9495435 0
-1.2928864 -1.0808997 5.939095 0
1.3022876 -1.0824058 5.9276495 0
2.5817726 -1.0742916 5.9155054 0
3.0234904 -1.0852755 5.9168606 0
3.0870123 -1.0677694 5.9051399 4
-3.9592321 -1.0151726 5.9267979 1
-3.9418511 -1.0185345 5.9231987 1.5
3.0711186 -1.0320245 5.9377203 4
3.1018999 -1.0321155 5.9232883 3
-3.9664555 -0.98395634 5.9385037 2.25
3.0932343 -0.97812629 5.9405322 2.25
3.1097631 -0.96776664 5.9073915 3
11.020474 -0.98256099 5.9363341 5
-3.9554186 -0.93167543 5.9168453 2
-3.9457412 -0.92995888 5.9293103 2
3.0933638 -0.92352796 5.9137917 1.25
3.1012042 -0.90044117 5.9013777 1
5.9929776 -0.94501007 5.9266891 3
11.023434 -0.92126608 5.9251866 5
-3.9714804 -0.87183857 5.9368401 2
3.0963004 -0.87967378 5.938571 0
3.108325 -0.86898631 5.9153881 1.5
-3.9676487 -0.84329861 5.9446106 2
3.095304 -0.82191503 5.9267778 1
3.1061316 -0.82696962 5.9254684 2
-6.774725 -0.77005631 5.9244761 5
-3.9674988 -0.76291776 5.9360356 3
3.0949783 -0.76499802 5.9150538 1.6666666
3.1040635 -0.77278692 5.9207811 2.8
-3.9603813 -0.71422452 5.9271255 2.6666667
-3.9486184 -0.74565059 5.9316459 3
3.0965235 -0.71739554 5.9260631 2.3333333
3.1156697 -0.7280848 5.9195156 2.2
-6.9037471 -0.65260005 5.9250946 5
-3.9636245 -0.67917264 5.9122763 3.75
3.1054971 -0.66889912 5.9067969 2.3333333
-6.8927779 -0.62451947 5.9393196 5
-3.9648948 -0.63763201 5.9110727 3.5999999
3.0894699 -0.6330179 5.9441977 2
3.1058106 -0.61161447 5.9209094 2.25
11.047634 -0.62196058 5.9283891 6
-3.9663188 -0.5804404 5.9244933 3.3333333
-3.9456401 -0.57367599 5.9141889 4
3.0942106 -0.55495059 5.9168739 5
3.109396 -0.56872934 5.9261537 3.6666667
11.042283 -0.57178348 5.944046 6
-3.9624209 -0.53635299 5.9430599 4
3.0944455 -0.53781015 5.922307 5
3.1038489 -0.52438682 5.9178829 4
11.036833 -0.52196616 5.925735 6
-3.9552879 -0.48022833 5.9221187 4.8000002
3.0991769 -0.45568198 5.94206 5
3.1082277 -0.48356041 5.9154205 4
-3.9595995 -0.42161649 5.9262304 4.5
-3.9477086 -0.44123018 5.9031382 5
3.0966194 -0.43003491 5.9227667 4.5
-6.9130468 -0.37388942 5.9241977 6
-6.8922467 -0.35582799 5.9010067 6
-3.9694805 -0.37427077 5.9177523 5
3.0873516 -0.3786962 5.9204655 4
3.1243696 -0.37803885 5.9241533 6
5.8442178 -0.37676334 5.9212222 6
5.8642073 -0.37216803 5.9183559 6
-3.9689631 -0.31105834 5.9193649 5.5
3.1124878 -0.31732184 5.9109459 5.5
5.840035 -0.30059248 5.9012527 6
5.8895001 -0.32944587 5.9325194 6
-3.9651973 -0.28163633 5.9208741 5.8000002
3.1109414 -0.27458385 5.9212756 5.1428571
5.845861 -0.27558833 5.9405913 6
5.8691616 -0.28446695 5.9057889 6
-3.9723055 -0.21923056 5.9242234 6
11.017134 -0.20159851 5.9383874 7
-6.8968015 -0.15857954 5.9131689 7
-3.9731982 -0.17272341 5.934227 6
3.0949292 -0.17726627 5.912075 7
3.11868 -0.17208891 5.9190006 6
11.068913 -0.16096824 5.9316092 7
-3.9612718 -0.10680615 5.9489393 7
3.1148567 -0.13351618 5.9253097 6.5
5.8518929 -0.10989928 5.9192877 7
5.9475465 -0.14625116 5.9015241 7
11.061834 -0.12682289 5.9110861 7
-6.9012527 -0.095269218 5.9110188 7
-6.8993979 -0.094409578 5.9438009 7
-3.9632337 -0.067906618 5.9136314 7
3.1126132 -0.074440524 5.920712 7
5.913096 -0.053319015 5.9120584 7
-3.9727585 -0.037830245 5.9248419 7
3.1105614 -0.039857734 5.909246 7
-3.9623725 0.086670607 5.9194837 8
3.0956366 0.073397927 5.927012 8
3.1045403 0.081971072 5.923604 8
-3.9652457 0.11959495 5.9265275 8
3.0937152 0.11932023 5.9349976 8
3.1082945 0.12172069 5.9175529 8
-6.8881111 0.17311546 5.9086514 8
3.1093802 0.18787868 5.9123511 9
5.8454986 0.15055233 5.9322739 8
5.8707948 0.16802594 5.9213839 8
-3.9708505 0.23966746 5.9227524 9
3.1131859 0.22304177 5.9153876 9
11.109791 0.21511133 5.9426928 8
11.159139 0.216958 5.9026656 8
-3.9692147 0.27716205 5.9343095 9
3.098727 0.29863611 5.9322224 10
3.1091366 0.28905481 5.9174886 9.5
11.110346 0.26629391 5.9097223 8
-3.971276 0.32636875 5.9272642 9
3.0945778 0.31551161 5.9208145 10
3.1061382 0.32562244 5.9282932 9.666667
-3.9626884 0.37509206 5.9168553 9.666667
3.0944827 0.38697267 5.9250841 9
3.1056492 0.37092879 5.9173517 9.5
5.8535776 0.3818222 5.9340181 9
-3.967787 0.43165416 5.9255681 10
3.0924199 0.41093466 5.9218554 11
3.1101425 0.4078314 5.9145713 10
5.8702602 0.41987261 5.9252276 9
-6.9039435 0.46097162 5.9207716 9
-3.9576612 0.45318913 5.9205437 10
3.0950611 0.46141306 5.9343219 10
3.105473 0.46162659 5.9301367 11
-3.9633446 0.52338141 5.9180274 10.5
-3.9483888 0.51715869 5.9324832 11
3.0909557 0.52640456 5.94245 11.333333
3.1088052 0.5275017 5.9161701 11.75
-3.9593282 0.57538611 5.9248209 10.25
3.086802 0.57956904 5.9495883 12
3.1083901 0.59021276 5.9305458 11
5.8401442 0.58046097 5.9403729 10
3.0935354 0.64450514 5.9388156 12
3.1122742 0.62919915 5.9134216 12.333333
5.828136 0.63848102 5.9128118 10
5.8530583 0.60476738 5.9444447 10
-3.9655759 0.67686677 5.9144392 11.75
-3.9475493 0.65605283 5.9202948 12
3.0964525 0.67105836 5.914474 11.666667
3.1063652 0.65792 5.9184084 13
5.8293705 0.6748023 5.926065 10
11.103002 0.66414553 5.9149971 9
-6.8858771 0.73824722 5.9055486 10
-3.9603972 0.73729628 5.9420018 11
3.08552 0.73302603 5.9294162 13
3.1030126 0.72174692 5.9277239 13
5.8263583 0.71229786 5.903832 10
-6.8826733 0.77626002 5.9279537 10
-3.9617352 0.77392757 5.9233088 11.75
3.0844903 0.76674259 5.9306049 14
3.1022086 0.78942126 5.9010968 11
-3.9611962 0.80643189 5.9383764 13
-3.9427171 0.84004009 5.9268055 12
3.095484 0.81956029 5.940217 12.5
3.1018901 0.81154442 5.9139047 11
-3.9648097 0.86994976 5.9062233 12
3.0814025 0.87562346 5.9205952 14.75
-3.9592888 0.92297006 5.921392 13
3.0960181 0.93142325 5.9019213 11
-3.9627185 0.97146213 5.9290466 12.6
3.0868664 0.96637255 5.929862 13.75
-6.8784633 1.0183557 5.9111338 11
-3.9631779 1.0272381 5.9217949 12.5
3.0893543 1.0275418 5.9320121 14
3.1069586 1.0234354 5.909976 12.25
-3.9570963 1.0769805 5.9258003 13.5
3.1074615 1.0825946 5.905808 12
11.040522 1.0821581 5.938693 10
11.065157 1.0764319 5.9314327 10
-3.9536641 1.101964 5.9351606 14
-3.9463606 1.1136965 5.9319787 15
3.0870762 1.1132979 5.9410558 13.666667
-3.964287 1.1749463 5.9132752 13.333333
-3.958919 1.2234123 5.9191074 13
3.0889771 1.217397 5.9201159 13.5
3.1107478 1.2379459 5.9286685 13
-14.294271 1.2894685 5.9111567 10
-3.9519625 1.2599562 5.9243903 15
3.0823135 1.2829911 5.9225249 12
3.1015015 1.2751545 5.9168692 13
5.8426628 1.2748895 5.9264193 12.1135
-14.300434 1.3096299 5.9479022 10.0555
-6.8554697 1.3320161 5.9475856 12
-6.744936 1.3389726 5.914052 12
-6.3720322 1.3043388 5.9496932 12.063
-6.3167896 1.3188173 5.9141197 12.0655
-3.972394 1.3209555 5.9359417 15.0465
3.0780249 1.3270737 5.9347267 14
5.2802873 1.3377573 5.936214 13.116
5.8095107 1.3162904 5.9084606 13.122
-3.958421 1.3874935 5.9235444 13.666667
5.8075438 1.3774501 5.9239502 13.1195
-3.9544332 1.4232974 5.9292293 14.666667
3.0860722 1.406376 5.9402466 14
5.6720257 1.4394356 5.9389253 14.1245
5.7875624 1.4345125 5.9339085 13.62125
11.06066 1.4872234 5.9096766 11
-3.9490488 1.5180855 5.9269571 14
3.0942516 1.5113443 5.9100313 14
11.034986 1.5011796 5.9461212 11
11.068325 1.503443 5.9153957 11
3.0879297 1.5793161 5.925107 13.5
-3.9532723 1.6066959 5.9115105 15
-3.9477062 1.6252165 5.9056864 14.5
9.2605095 1.6452734 5.9038444 12.123
-3.9506679 1.6546912 5.9095182 15
9.5704603 1.6582118 5.9311256 12.1265
10.48776 1.6957498 5.9087806 12.133
3.0868144 1.7478061 5.9207926 15
-3.9433675 1.7596306 5.9146795 15
3.0749834 1.7732928 5.9062853 14
3.0905862 1.8301284 5.9275956 15
-3.9475074 1.90232 5.9005704 15
3.0485029 1.9848361 5.9438372 15
-0.64409339 -1.1088147 5.9513969 2
0.34115022 -1.1058877 5.9718561 2
2.9468443 -1.1099573 5.9625473 1
3.0075991 -1.1000668 5.9859881 0
-6.6730161 -1.0675994 5.9785385 4
-3.9661295 -1.0554216 5.9947877 2
-3.9355028 -1.0760603 5.9583092 0.5
-3.8356946 -1.0848436 5.9961176 1
-3.4940324 -1.0698839 5.9754963 1
-3.2890337 -1.0593829 5.9945221 0
-3.1348116 -1.0715239 5.9846735 0
-3.0627935 -1.0581971 5.9821115 0
-2.8599226 -1.09153 5.9558477 1
-2.8492281 -1.0720701 5.9923921 0
-2.5026855 -1.0730622 5.971199 0
-1.5554436 -1.0650363 5.990067 0
-1.1892029 -1.0815272 5.9747443 0
-1.1178534 -1.0812981 5.9946866 0
1.1449083 -1.0868909 5.9993472 1
1.1974108 -1.0815415 5.9590755 0
2.0431225 -1.0720217 5.9843388 0
2.1185925 -1.0923078 5.974926 0
2.3397472 -1.0555199 5.972846 0
2.504447 -1.0778403 5.9960337 0
2.7581301 -1.0902684 5.9936538 1
2.8478036 -1.0706103 5.9745684 0
2.9991288 -1.091146 5.9548955 3
3.0877306 -1.0698166 5.9824867 0
-3.9562988 -1.0249257 5.9673934 0.66666669
3.0910261 -1.019051 5.9956617 3
11.016197 -1.0405043 5.9824281 5
-3.95784 -0.97607124 5.9649124 1.4
3.0857387 -0.96686697 5.9818878 1.5
11.015406 -0.95107985 5.978776 5
-3.9591525 -0.90191424 5.9618759 1
3.0840998 -0.92849898 5.9712234 2
3.1007416 -0.92016524 5.9891376 1
-3.9653003 -0.87844574 5.9667826 1
-3.9487789 -0.89334029 5.9833441 2
3.095834 -0.87976235 5.9780641 2
3.1030354 -0.85814464 5.966115 1.5
-3.9671962 -0.82410979 5.9799113 2.5
3.0925927 -0.80384171 5.9678087 1.5
3.1059663 -0.83183753 5.979722 1.5
-6.7332854 -0.76934671 5.9672289 5
-3.9638271 -0.76901186 5.9731846 2.25
3.0907278 -0.78176832 5.9694653 3
3.1000335 -0.75315225 5.957819 1
-3.9666545 -0.7288571 5.9791789 3
3.0959401 -0.71743327 5.9935317 1
3.1012416 -0.71673322 5.9829445 2.5
-6.9052768 -0.66483253 5.9561367 5
-3.9685106 -0.67262691 5.9582233 3.5
3.0825524 -0.67883486 5.9852915 4.5
3.1004865 -0.67200214 5.9810629 2
-3.9644873 -0.61340988 5.9687233 3.5
3.0944598 -0.63141692 5.9784622 3.5
3.1052406 -0.62414491 5.9722991 3.5
11.025414 -0.61421508 5.9809718 6
-3.9635346 -0.57359135 5.9770017 4
3.0908012 -0.56719857 5.9861531 4.3333335
-3.9552538 -0.52136946 5.9675446 4.3333335
3.095227 -0.5217905 5.9788218 3.5
3.1040401 -0.5452556 5.971169 3
11.028145 -0.54307997 5.9815578 6
-3.9564641 -0.46745154 5.9572749 4
3.0932536 -0.48320475 5.9598961 4.1999998
3.1107888 -0.49008065 5.9875135 3
5.8378587 -0.48977682 5.9640436 5
-3.9651287 -0.43481529 5.9797306 4.5
3.089323 -0.4162983 5.976685 5
3.1034577 -0.40620637 5.9982586 4
-6.9144912 -0.37960923 5.956912 6
-3.9704838 -0.37683058 5.9817619 5.1666665
3.0949764 -0.37956119 5.9732475 4
3.107615 -0.38376325 5.9812169 5.4000001
-3.971175 -0.31518525 5.9605083 5.5
3.108041 -0.33147681 5.9578323 5
-3.9713326 -0.28742701 5.9982085 6
3.0959783 -0.27226356 5.9709725 5.5
3.1096518 -0.27724454 5.9721756 5.1999998
5.8859982 -0.28551826 5.9871645 6
-3.9703612 -0.22322911 5.984087 6
3.0991633 -0.22326308 5.9915085 6
3.1109376 -0.23652525 5.9892154 6
11.028035 -0.20152566 5.9578009 7
-6.9044638 -0.17073905 5.9991488 7
-3.9879403 -0.17369759 5.9594412 6
3.0854442 -0.16761309 5.9700451 6.75
3.1109791 -0.1623486 5.9714136 6.2857141
11.092252 -0.17371616 5.9775009 7
-3.9729197 -0.13510145 5.9804049 6.5
3.0951254 -0.10792584 5.9764743 7
3.1105289 -0.13669249 5.9663496 6.5
-3.9719257 -0.05935584 5.9763918 7
3.0937192 -0.070502006 5.9599652 7
3.1115844 -0.087305821 5.9782472 7
5.8823657 -0.061686084 5.9543791 7
5.9277735 -0.080432616 5.9518924 7
-3.9787111 -0.022409387 5.9846253 7
3.0924551 -0.032821473 5.9723902 7
3.1097655 -0.037019048 5.9663687 7
5.9313107 -0.049482722 5.9816904 7
-3.9687014 0.092170462 5.9886751 8
-3.9480865 0.092561737 5.9613171 8
3.0908222 0.090140663 5.9727807 8
3.1049716 0.081985496 5.9756603 8
-3.967519 0.12381247 5.9790955 8
3.0919311 0.12624522 5.9906573 8
3.1068227 0.11437374 5.9817619 8
-6.9015274 0.18552184 5.9826431 8
